# .PCD v0.7 - Point Cloud Data file format
VERSION 0.7
FIELDS x y z rgb
SIZE 4 4 4 4
TYPE F F F U
COUNT 1 1 1 1
WIDTH 1176
HEIGHT 1
VIEWPOINT 0 0 0 1 0 0 0
POINTS 1176
DATA ascii
59648.953 39485.895 42.664356 4294967295
59652.805 39487.621 42.645916 4294967295
59652.414 39487.441 42.648796 4294967295
59651.906 39487.207 42.64983 4294967295
59651.23 39486.891 42.650803 4294967295
59650.301 39486.457 42.654278 4294967295
59648.984 39485.844 42.663624 4294967295
59652.816 39487.598 42.64613 4294967295
59652.434 39487.414 42.648872 4294967295
59651.922 39487.172 42.648869 4294967295
59651.246 39486.852 42.649685 4294967295
59650.328 39486.418 42.65377 4294967295
59649.012 39485.789 42.662899 4294967295
59652.832 39487.574 42.646259 4294967295
59652.445 39487.387 42.64798 4294967295
59651.93 39487.137 42.647953 4294967295
59651.27 39486.816 42.650421 4294967295
59650.355 39486.375 42.653278 4294967295
59649.07 39485.75 42.663593 4294967295
59652.844 39487.551 42.646473 4294967295
59652.465 39487.363 42.648041 4294967295
59651.941 39487.105 42.647011 4294967295
59651.285 39486.781 42.649284 4294967295
59650.375 39486.328 42.651947 4294967295
59649.102 39485.699 42.662849 4294967295
59652.867 39487.531 42.646542 4294967295
59652.48 39487.336 42.648109 4294967295
59651.961 39487.074 42.645969 4294967295
59651.312 39486.75 42.648994 4294967295
59650.422 39486.297 42.653137 4294967295
59649.129 39485.645 42.661079 4294967295
59652.883 39487.508 42.646717 4294967295
59652.5 39487.312 42.648113 4294967295
59651.984 39487.047 42.645828 4294967295
59651.336 39486.715 42.647709 4294967295
59650.465 39486.266 42.653374 4294967295
59649.156 39485.59 42.659386 4294967295
59652.898 39487.484 42.646873 4294967295
59652.516 39487.285 42.647209 4294967295
59652.004 39487.016 42.644737 4294967295
59651.367 39486.68 42.648335 4294967295
59650.488 39486.223 42.651939 4294967295
59649.176 39485.531 42.656815 4294967295
59652.91 39487.457 42.645061 4294967295
59652.547 39487.266 42.649014 4294967295
59652.031 39486.988 42.645523 4294967295
59651.391 39486.648 42.647057 4294967295
59650.535 39486.191 42.65213 4294967295
59649.23 39485.492 42.655548 4294967295
59652.918 39487.43 42.643314 4294967295
59652.559 39487.234 42.646198 4294967295
59652.051 39486.961 42.64444 4294967295
59651.41 39486.613 42.644909 4294967295
59650.586 39486.16 42.652264 4294967295
59649.258 39485.438 42.652889 4294967295
59652.945 39487.414 42.644302 4294967295
59652.586 39487.215 42.647079 4294967295
59652.078 39486.934 42.644245 4294967295
59651.453 39486.586 42.645329 4294967295
59650.59 39486.109 42.649158 4294967295
59649.328 39485.406 42.653431 4294967295
59652.965 39487.391 42.644421 4294967295
59652.598 39487.188 42.64526 4294967295
59652.105 39486.906 42.64307 4294967295
59651.48 39486.555 42.644966 4294967295
59650.672 39486.098 42.651817 4294967295
59649.402 39485.379 42.653969 4294967295
59652.98 39487.367 42.643562 4294967295
59652.629 39487.168 42.646095 4294967295
59652.129 39486.883 42.642902 4294967295
59651.52 39486.527 42.644478 4294967295
59650.711 39486.062 42.650146 4294967295
59649.469 39485.348 42.653591 4294967295
59653.004 39487.352 42.643604 4294967295
59652.656 39487.148 42.645947 4294967295
59652.16 39486.855 42.642677 4294967295
59651.574 39486.512 42.645752 4294967295
59650.762 39486.039 42.65033 4294967295
59649.535 39485.316 42.652298 4294967295
59653.023 39487.332 42.642677 4294967295
59652.676 39487.121 42.644985 4294967295
59652.227 39486.855 42.645901 4294967295
59651.586 39486.477 42.64267 4294967295
59650.809 39486.008 42.649529 4294967295
59649.602 39485.289 42.651951 4294967295
59653.672 39487.68 42.745106 4294967295
59653.668 39487.672 42.785149 4294967295
59653.672 39487.672 42.826981 4294967295
59653.676 39487.668 42.867897 4294967295
59653.676 39487.66 42.908825 4294967295
59653.668 39487.652 42.947861 4294967295
59653.699 39487.672 42.747204 4294967295
59653.699 39487.664 42.787178 4294967295
59653.699 39487.66 42.828133 4294967295
59653.703 39487.66 42.868984 4294967295
59653.703 39487.652 42.908951 4294967295
59653.691 39487.645 42.948021 4294967295
59653.719 39487.656 42.74646 4294967295
59653.727 39487.656 42.7883 4294967295
59653.719 39487.648 42.82737 4294967295
59653.719 39487.645 42.86729 4294967295
59653.719 39487.637 42.907257 4294967295
59653.711 39487.629 42.94627 4294967295
59653.73 39487.641 42.745811 4294967295
59653.754 39487.652 42.789413 4294967295
59653.73 39487.633 42.826694 4294967295
59653.734 39487.629 42.866611 4294967295
59653.73 39487.621 42.906578 4294967295
59653.723 39487.613 42.945633 4294967295
59653.742 39487.621 42.743202 4294967295
59653.746 39487.621 42.78508 4294967295
59653.742 39487.613 42.824097 4294967295
59653.734 39487.605 42.864117 4294967295
59653.73 39487.594 42.903133 4294967295
59653.723 39487.586 42.943203 4294967295
59653.75 39487.602 42.741585 4294967295
59653.742 39487.59 42.780659 4294967295
59653.742 39487.586 42.821602 4294967295
59653.73 39487.574 42.85973 4294967295
59653.699 39487.551 42.897106 4294967295
59650.047 39485.152 42.646702 4294967295
59653.742 39487.566 42.736248 4294967295
59653.688 39487.531 42.768925 4294967295
59652.449 39486.707 42.641254 4294967295
59651.91 39486.344 42.642689 4294967295
59651.195 39485.859 42.645561 4294967295
59650.133 39485.141 42.647198 4294967295
59653.203 39487.184 42.637169 4294967295
59652.895 39486.969 42.640388 4294967295
59652.492 39486.695 42.641842 4294967295
59651.961 39486.328 42.643097 4294967295
59651.25 39485.84 42.644783 4294967295
59650.211 39485.125 42.645859 4294967295
59653.234 39487.168 42.637154 4294967295
59652.922 39486.953 42.63932 4294967295
59652.535 39486.68 42.641544 4294967295
59652 39486.309 42.640709 4294967295
59651.305 39485.82 42.643978 4294967295
59650.281 39485.105 42.643658 4294967295
59653.25 39487.148 42.635281 4294967295
59652.953 39486.938 42.638226 4294967295
59652.574 39486.668 42.641235 4294967295
59652.055 39486.297 42.641075 4294967295
59651.359 39485.805 42.64222 4294967295
59650.379 39485.105 42.644058 4294967295
59653.27 39487.129 42.6334 4294967295
59652.992 39486.926 42.639034 4294967295
59652.613 39486.652 42.640938 4294967295
59652.102 39486.285 42.641529 4294967295
59651.426 39485.793 42.642307 4294967295
59650.461 39485.094 42.643715 4294967295
59653.32 39487.129 42.637146 4294967295
59653.02 39486.91 42.637993 4294967295
59652.645 39486.637 42.639759 4294967295
59652.156 39486.277 42.64196 4294967295
59651.496 39485.793 42.643349 4294967295
59650.531 39485.082 42.642563 4294967295
59653.336 39487.109 42.634319 4294967295
59653.059 39486.902 42.638817 4294967295
59652.664 39486.609 42.636749 4294967295
59652.195 39486.258 42.639614 4294967295
59651.551 39485.777 42.641613 4294967295
59650.617 39485.078 42.64127 4294967295
59653.363 39487.098 42.634377 4294967295
59653.086 39486.887 42.637791 4294967295
59652.703 39486.594 42.635506 4294967295
59652.254 39486.254 42.640003 4294967295
59651.613 39485.77 42.640827 4294967295
59650.695 39485.07 42.641033 4294967295
59653.387 39487.082 42.632462 4294967295
59653.125 39486.879 42.638596 4294967295
59652.738 39486.582 42.635269 4294967295
59652.301 39486.242 42.639538 4294967295
59651.68 39485.762 42.641018 4294967295
59650.789 39485.074 42.640686 4294967295
59653.418 39487.07 42.63245 4294967295
59653.16 39486.871 42.6385 4294967295
59652.785 39486.574 42.635952 4294967295
59652.344 39486.23 42.639145 4294967295
59651.738 39485.754 42.640266 4294967295
59650.871 39485.07 42.639458 4294967295
59653.453 39487.066 42.634407 4294967295
59653.199 39486.863 42.639378 4294967295
59652.828 39486.57 42.635662 4294967295
59652.395 39486.223 42.638676 4294967295
59651.797 39485.746 42.63958 4294967295
59650.949 39485.066 42.639328 4294967295
59653.48 39487.055 42.632507 4294967295
59653.234 39486.855 42.638302 4294967295
59652.902 39486.59 42.641056 4294967295
59652.441 39486.215 42.638271 4294967295
59651.855 39485.738 42.638901 4294967295
59651.094 39485.117 42.644455 4294967295
59653.512 39487.047 42.633492 4294967295
59653.266 39486.844 42.638271 4294967295
59652.945 39486.582 42.640835 4294967295
59652.465 39486.188 42.634144 4294967295
59651.867 39485.695 42.632717 4294967295
59651.555 39485.43 42.682144 4294967295
59653.543 39487.039 42.633541 4294967295
59653.293 39486.832 42.636303 4294967295
59652.98 39486.57 42.640659 4294967295
59652.516 39486.18 42.633739 4294967295
59651.93 39485.691 42.63205 4294967295
59651.617 39485.426 42.680363 4294967295
59653.562 39487.023 42.631721 4294967295
59653.324 39486.82 42.636292 4294967295
59653.031 39486.57 42.641399 4294967295
59652.59 39486.199 42.638031 4294967295
59652 39485.695 42.633266 4294967295
59651.664 39485.406 42.676781 4294967295
59653.586 39487.012 42.62986 4294967295
59653.352 39486.809 42.635319 4294967295
59653.066 39486.562 42.641258 4294967295
59652.641 39486.195 42.637684 4294967295
59652.055 39485.691 42.631725 4294967295
59651.695 39485.375 42.672375 4294967295
59653.621 39487.004 42.630917 4294967295
59653.379 39486.797 42.633366 4294967295
59653.109 39486.559 42.641087 4294967295
59652.668 39486.172 42.634548 4294967295
59652.137 39485.707 42.633911 4294967295
59651.727 39485.344 42.667969 4294967295
59653.656 39487.004 42.631924 4294967295
59653.41 39486.785 42.632381 4294967295
59653.148 39486.555 42.64098 4294967295
59652.723 39486.176 42.635155 4294967295
59652.215 39485.723 42.636116 4294967295
59651.727 39485.281 42.658882 4294967295
59653.688 39486.996 42.632034 4294967295
59653.441 39486.777 42.632416 4294967295
59653.184 39486.547 42.639877 4294967295
59652.762 39486.164 42.633934 4294967295
59652.277 39485.727 42.636517 4294967295
59651.602 39485.109 42.636974 4294967295
59653.715 39486.992 42.631149 4294967295
59653.473 39486.77 42.631409 4294967295
59653.223 39486.543 42.640766 4294967295
59652.812 39486.164 42.634602 4294967295
59652.34 39485.73 42.63699 4294967295
59651.664 39485.109 42.636208 4294967295
59653.746 39486.984 42.631271 4294967295
59653.504 39486.762 42.630489 4294967295
59653.262 39486.539 42.640686 4294967295
59652.859 39486.164 42.634346 4294967295
59652.398 39485.734 42.636456 4294967295
59651.738 39485.113 42.635399 4294967295
59653.77 39486.977 42.630451 4294967295
59653.531 39486.754 42.629562 4294967295
59653.297 39486.531 42.639645 4294967295
59652.898 39486.156 42.633148 4294967295
59652.453 39485.734 42.637043 4294967295
59651.801 39485.113 42.633724 4294967295
59653.793 39486.969 42.629612 4294967295
59653.562 39486.746 42.629627 4294967295
59653.332 39486.527 42.639591 4294967295
59652.938 39486.148 42.631954 4294967295
59652.504 39485.73 42.635643 4294967295
59651.875 39485.125 42.633953 4294967295
59653.82 39486.961 42.629787 4294967295
59653.605 39486.75 42.631618 4294967295
59653.375 39486.527 42.639542 4294967295
59652.984 39486.148 42.631752 4294967295
59652.555 39485.73 42.635265 4294967295
59651.945 39485.133 42.634258 4294967295
59653.855 39486.961 42.63092 4294967295
59653.629 39486.738 42.629738 4294967295
59653.402 39486.516 42.638569 4294967295
59653.023 39486.145 42.631626 4294967295
59652.617 39485.738 42.635845 4294967295
59652.008 39485.133 42.633652 4294967295
59653.875 39486.953 42.629158 4294967295
59653.664 39486.742 42.630825 4294967295
59653.434 39486.512 42.638607 4294967295
59653.086 39486.16 42.634323 4294967295
59652.664 39485.734 42.635563 4294967295
59652.066 39485.137 42.632092 4294967295
59653.906 39486.949 42.630329 4294967295
59653.688 39486.727 42.628998 4294967295
59653.441 39486.48 42.632847 4294967295
59653.125 39486.156 42.634205 4294967295
59652.711 39485.734 42.635277 4294967295
59652.133 39485.141 42.632519 4294967295
59653.93 39486.941 42.629578 4294967295
59653.715 39486.723 42.629139 4294967295
59653.469 39486.469 42.630951 4294967295
59653.164 39486.156 42.634121 4294967295
59652.758 39485.73 42.634022 4294967295
59652.199 39485.152 42.632965 4294967295
59653.961 39486.941 42.630768 4294967295
59653.75 39486.723 42.629253 4294967295
59653.496 39486.461 42.63002 4294967295
59653.207 39486.156 42.634026 4294967295
59652.801 39485.73 42.633801 4294967295
59652.355 39485.262 42.644817 4294967295
59653.977 39486.93 42.629097 4294967295
59653.777 39486.719 42.629456 4294967295
59653.531 39486.457 42.629093 4294967295
59653.238 39486.148 42.63306 4294967295
59652.828 39485.711 42.63073 4294967295
59652.449 39485.305 42.649223 4294967295
59654 39486.926 42.628365 4294967295
59653.801 39486.711 42.627682 4294967295
59653.574 39486.465 42.632118 4294967295
59653.262 39486.129 42.630123 4294967295
59652.844 39485.68 42.625721 4294967295
59652.539 39485.348 42.654633 4294967295
59654.027 39486.922 42.62862 4294967295
59653.824 39486.703 42.627895 4294967295
59653.602 39486.461 42.631275 4294967295
59653.281 39486.113 42.627193 4294967295
59652.898 39485.688 42.626511 4294967295
59652.574 39485.332 42.65144 4294967295
59654.051 39486.914 42.627926 4294967295
59653.855 39486.703 42.629082 4294967295
59653.625 39486.449 42.629448 4294967295
59653.359 39486.156 42.634975 4294967295
59652.969 39485.723 42.631199 4294967295
59652.586 39485.297 42.646366 4294967295
59654.07 39486.91 42.627247 4294967295
59653.879 39486.695 42.628315 4294967295
59653.648 39486.441 42.628609 4294967295
59653.398 39486.16 42.635017 4294967295
59653.02 39485.73 42.632069 4294967295
59652.535 39485.184 42.631683 4294967295
59654.09 39486.902 42.62656 4294967295
59653.902 39486.691 42.627602 4294967295
59653.68 39486.438 42.628773 4294967295
59653.434 39486.156 42.635071 4294967295
59653.059 39485.727 42.632008 4294967295
59652.594 39485.195 42.632385 4294967295
59654.113 39486.898 42.627888 4294967295
59653.922 39486.68 42.625904 4294967295
59653.715 39486.441 42.629929 4294967295
59653.465 39486.152 42.635189 4294967295
59653.102 39485.738 42.632946 4294967295
59652.641 39485.199 42.63216 4294967295
59654.137 39486.895 42.627239 4294967295
59653.953 39486.684 42.627132 4294967295
59653.75 39486.449 42.632122 4294967295
59653.496 39486.152 42.635307 4294967295
59653.125 39485.715 42.629993 4294967295
59652.629 39485.129 42.62323 4294967295
59654.152 39486.883 42.625637 4294967295
59653.984 39486.691 42.630413 4294967295
59653.773 39486.441 42.630344 4294967295
59653.531 39486.152 42.635433 4294967295
59653.168 39485.723 42.630997 4294967295
59652.668 39485.125 42.622108 4294967295
59654.172 39486.883 42.626003 4294967295
59654.008 39486.684 42.629734 4294967295
59653.793 39486.43 42.629665 4294967295
59653.559 39486.148 42.635612 4294967295
59653.215 39485.734 42.63298 4294967295
59652.73 39485.152 42.625904 4294967295
59654.191 39486.875 42.626415 4294967295
59654.023 39486.676 42.628117 4294967295
59653.82 39486.43 42.629917 4294967295
59653.586 39486.145 42.635815 4294967295
59653.246 39485.727 42.63308 4294967295
59652.812 39485.203 42.631645 4294967295
59654.207 39486.867 42.625847 4294967295
59654.043 39486.668 42.627468 4294967295
59653.836 39486.414 42.628231 4294967295
59653.609 39486.137 42.635033 4294967295
59653.273 39485.723 42.63221 4294967295
59652.852 39485.199 42.63163 4294967295
59654.227 39486.863 42.625267 4294967295
59654.059 39486.656 42.625862 4294967295
59653.859 39486.414 42.62854 4294967295
59653.637 39486.133 42.635284 4294967295
59653.305 39485.719 42.632339 4294967295
59652.891 39485.203 42.632603 4294967295
59654.238 39486.852 42.624725 4294967295
59654.082 39486.656 42.627239 4294967295
59653.879 39486.406 42.627872 4294967295
59653.656 39486.125 42.634548 4294967295
59653.332 39485.715 42.631477 4294967295
59652.918 39485.188 42.63065 4294967295
59654.262 39486.852 42.625168 4294967295
59654.102 39486.652 42.62764 4294967295
59653.91 39486.414 42.631222 4294967295
59653.676 39486.113 42.632839 4294967295
59653.344 39485.688 42.628716 4294967295
59652.949 39485.184 42.630714 4294967295
59654.277 39486.848 42.625656 4294967295
59654.117 39486.645 42.627083 4294967295
59653.926 39486.402 42.629589 4294967295
59653.699 39486.109 42.633152 4294967295
59653.387 39485.703 42.630878 4294967295
59652.98 39485.176 42.629787 4294967295
59654.289 39486.84 42.624146 4294967295
59654.137 39486.641 42.627541 4294967295
59653.949 39486.402 42.630978 4294967295
59653.719 39486.105 42.633499 4294967295
59653.406 39485.691 42.631138 4294967295
59653.004 39485.164 42.628941 4294967295
59654.305 39486.836 42.624645 4294967295
59654.152 39486.633 42.627991 4294967295
59653.965 39486.391 42.629387 4294967295
59653.738 39486.094 42.632843 4294967295
59653.434 39485.691 42.631378 4294967295
59653.031 39485.16 42.629063 4294967295
59654.316 39486.824 42.62418 4294967295
59654.16 39486.621 42.626503 4294967295
59653.984 39486.391 42.630848 4294967295
59653.758 39486.09 42.633232 4294967295
59653.453 39485.684 42.631699 4294967295
59653.062 39485.156 42.629253 4294967295
59654.328 39486.82 42.624748 4294967295
59654.176 39486.617 42.626015 4294967295
59654.008 39486.395 42.63229 4294967295
59653.77 39486.07 42.63163 4294967295
59653.477 39485.676 42.631004 4294967295
59653.082 39485.145 42.629471 4294967295
59654.34 39486.812 42.62431 4294967295
59654.188 39486.609 42.626549 4294967295
59654.02 39486.379 42.631783 4294967295
59653.789 39486.07 42.632065 4294967295
59653.496 39485.668 42.631367 4294967295
59653.105 39485.133 42.628719 4294967295
59654.352 39486.809 42.624897 4294967295
59654.203 39486.605 42.627087 4294967295
59654.035 39486.375 42.632294 4294967295
59653.805 39486.059 42.631481 4294967295
59653.516 39485.664 42.631733 4294967295
59653.121 39485.121 42.629009 4294967295
59654.363 39486.801 42.624474 4294967295
59654.211 39486.594 42.625645 4294967295
59654.043 39486.363 42.630798 4294967295
59653.816 39486.051 42.631989 4294967295
59653.523 39485.645 42.630161 4294967295
59653.137 39485.105 42.628315 4294967295
59654.375 39486.793 42.625114 4294967295
59654.223 39486.586 42.626221 4294967295
59654.055 39486.355 42.631355 4294967295
59653.828 39486.039 42.631474 4294967295
59653.539 39485.637 42.630573 4294967295
59653.152 39485.094 42.627651 4294967295
59654.754 39486.719 42.602219 4294967295
59654.629 39486.531 42.594624 4294967295
59654.488 39486.312 42.587795 4294967295
59654.309 39486.043 42.577522 4294967295
59654.109 39485.746 42.571014 4294967295
59653.855 39485.363 42.561844 4294967295
59654.738 39486.727 42.601463 4294967295
59654.613 39486.539 42.594906 4294967295
59654.469 39486.324 42.587097 4294967295
59654.305 39486.078 42.582058 4294967295
59654.086 39485.754 42.570362 4294967295
59653.84 39485.387 42.562347 4294967295
59654.727 39486.734 42.600719 4294967295
59654.598 39486.551 42.594173 4294967295
59654.457 39486.336 42.587433 4294967295
59654.285 39486.086 42.580357 4294967295
59654.07 39485.773 42.570797 4294967295
59653.812 39485.398 42.56073 4294967295
59654.715 39486.75 42.602009 4294967295
59654.59 39486.566 42.595501 4294967295
59654.441 39486.352 42.587753 4294967295
59654.258 39486.086 42.577591 4294967295
59654.055 39485.789 42.57119 4294967295
59653.797 39485.422 42.562199 4294967295
59654.699 39486.754 42.600239 4294967295
59654.57 39486.57 42.593727 4294967295
59654.426 39486.363 42.588062 4294967295
59654.25 39486.109 42.580032 4294967295
59654.043 39485.816 42.572651 4294967295
59653.781 39485.441 42.562668 4294967295
59654.688 39486.766 42.600502 4294967295
59654.562 39486.586 42.59507 4294967295
59654.41 39486.375 42.587357 4294967295
59654.242 39486.137 42.581448 4294967295
59654.027 39485.832 42.572033 4294967295
59653.773 39485.477 42.565224 4294967295
59654.676 39486.781 42.601791 4294967295
59654.547 39486.598 42.594326 4294967295
59654.402 39486.391 42.587708 4294967295
59654.215 39486.129 42.577625 4294967295
59654.008 39485.844 42.571388 4294967295
59653.758 39485.496 42.56464 4294967295
59654.664 39486.789 42.60104 4294967295
59654.539 39486.613 42.594643 4294967295
59654.387 39486.402 42.58699 4294967295
59654.211 39486.16 42.5811 4294967295
59653.742 39485.512 42.564049 4294967295
59654.656 39486.801 42.601303 4294967295
59654.527 39486.625 42.594906 4294967295
59654.375 39486.418 42.587292 4294967295
59654.195 39486.172 42.579395 4294967295
59654 39485.906 42.57634 4294967295
59653.73 39485.539 42.565514 4294967295
59654.645 39486.812 42.600529 4294967295
59654.52 39486.637 42.595192 4294967295
59654.363 39486.43 42.586578 4294967295
59654.199 39486.203 42.583858 4294967295
59653.711 39485.551 42.563854 4294967295
59654.637 39486.824 42.600796 4294967295
59654.508 39486.648 42.594444 4294967295
59654.355 39486.441 42.586864 4294967295
59654.188 39486.219 42.583157 4294967295
59653.965 39485.922 42.571911 4294967295
59653.703 39485.574 42.563278 4294967295
59654.629 39486.836 42.601036 4294967295
59654.5 39486.664 42.594723 4294967295
59654.348 39486.461 42.588196 4294967295
59654.172 39486.23 42.581444 4294967295
59653.695 39485.602 42.564735 4294967295
59654.621 39486.848 42.601265 4294967295
59654.492 39486.676 42.593975 4294967295
59654.34 39486.477 42.58849 4294967295
59654.156 39486.238 42.579685 4294967295
59653.953 39485.969 42.573685 4294967295
59653.688 39485.625 42.56414 4294967295
59654.617 39486.863 42.601532 4294967295
59654.484 39486.688 42.594227 4294967295
59654.336 39486.492 42.588779 4294967295
59654.152 39486.254 42.57999 4294967295
59653.969 39486.016 42.580227 4294967295
59653.684 39485.648 42.564518 4294967295
59654.605 39486.871 42.600735 4294967295
59654.48 39486.707 42.595512 4294967295
59654.328 39486.508 42.588047 4294967295
59654.152 39486.281 42.581367 4294967295
59653.676 39485.672 42.564926 4294967295
59654.605 39486.887 42.601982 4294967295
59654.473 39486.715 42.59473 4294967295
59654.32 39486.523 42.588318 4294967295
59654.148 39486.301 42.582703 4294967295
59653.934 39486.023 42.573689 4294967295
59653.676 39485.703 42.566353 4294967295
59654.598 39486.898 42.602215 4294967295
59654.469 39486.73 42.594975 4294967295
59654.316 39486.539 42.588573 4294967295
59654.141 39486.312 42.581944 4294967295
59653.93 39486.047 42.574009 4294967295
59653.676 39485.727 42.566727 4294967295
59654.594 39486.906 42.601395 4294967295
59654.465 39486.742 42.595196 4294967295
59654.312 39486.555 42.588833 4294967295
59654.141 39486.332 42.583241 4294967295
59653.672 39485.746 42.566055 4294967295
59654.59 39486.922 42.601616 4294967295
59654.457 39486.754 42.594414 4294967295
59654.316 39486.574 42.591122 4294967295
59654.129 39486.34 42.580441 4294967295
59653.941 39486.109 42.5798 4294967295
59653.676 39485.777 42.568451 4294967295
59654.59 39486.934 42.601826 4294967295
59654.457 39486.766 42.594624 4294967295
59654.312 39486.59 42.590343 4294967295
59654.129 39486.359 42.580715 4294967295
59653.672 39485.797 42.567734 4294967295
59654.586 39486.949 42.603039 4294967295
59654.449 39486.777 42.593819 4294967295
59654.309 39486.602 42.590565 4294967295
59654.129 39486.379 42.581993 4294967295
59653.676 39485.82 42.56805 4294967295
59654.586 39486.961 42.60321 4294967295
59654.453 39486.793 42.59502 4294967295
59654.305 39486.613 42.58976 4294967295
59654.133 39486.398 42.582245 4294967295
59653.676 39485.84 42.567352 4294967295
59654.582 39486.969 42.602371 4294967295
59654.445 39486.801 42.5942 4294967295
59654.312 39486.633 42.591019 4294967295
59654.137 39486.418 42.5835 4294967295
59653.93 39486.164 42.575733 4294967295
59653.68 39485.859 42.567631 4294967295
59654.586 39486.984 42.603573 4294967295
59654.449 39486.816 42.594379 4294967295
59654.316 39486.652 42.592236 4294967295
59654.137 39486.43 42.583687 4294967295
59653.926 39486.176 42.574944 4294967295
59653.688 39485.891 42.568954 4294967295
59654.582 39486.992 42.602707 4294967295
59654.449 39486.828 42.594551 4294967295
59654.316 39486.664 42.592411 4294967295
59654.137 39486.445 42.58289 4294967295
59653.93 39486.199 42.575188 4294967295
59653.691 39485.91 42.56921 4294967295
59654.578 39486.996 42.601814 4294967295
59654.449 39486.84 42.59473 4294967295
59654.32 39486.68 42.59259 4294967295
59654.141 39486.465 42.584106 4294967295
59653.934 39486.211 42.575363 4294967295
59653.711 39485.945 42.57254 4294967295
59654.582 39487.012 42.602985 4294967295
59654.457 39486.855 42.595901 4294967295
59654.32 39486.691 42.592751 4294967295
59654.148 39486.48 42.585316 4294967295
59653.945 39486.234 42.576614 4294967295
59653.715 39485.961 42.57172 4294967295
59654.586 39487.023 42.604137 4294967295
59654.453 39486.863 42.595024 4294967295
59654.32 39486.699 42.59288 4294967295
59654.156 39486.5 42.586498 4294967295
59653.953 39486.254 42.577812 4294967295
59653.727 39485.984 42.572971 4294967295
59654.59 39487.035 42.604252 4294967295
59654.461 39486.875 42.596153 4294967295
59654.328 39486.715 42.593048 4294967295
59654.164 39486.52 42.587685 4294967295
59653.953 39486.262 42.575935 4294967295
59653.734 39486.004 42.573158 4294967295
59654.59 39487.043 42.604366 4294967295
59654.461 39486.883 42.595268 4294967295
59654.328 39486.723 42.59314 4294967295
59654.168 39486.527 42.587799 4294967295
59653.961 39486.281 42.577126 4294967295
59653.738 39486.016 42.573315 4294967295
59654.594 39487.055 42.605473 4294967295
59654.465 39486.895 42.596382 4294967295
59654.332 39486.734 42.593269 4294967295
59654.168 39486.535 42.585888 4294967295
59653.969 39486.293 42.577255 4294967295
59653.746 39486.027 42.572433 4294967295
59654.602 39487.062 42.605568 4294967295
59654.473 39486.91 42.597507 4294967295
59654.336 39486.742 42.592358 4294967295
59654.172 39486.543 42.58498 4294967295
59653.973 39486.305 42.576363 4294967295
59653.75 39486.039 42.571526 4294967295
59654.602 39487.07 42.605644 4294967295
59654.473 39486.914 42.596558 4294967295
59654.344 39486.754 42.593468 4294967295
59654.18 39486.559 42.58609 4294967295
59653.98 39486.316 42.576443 4294967295
59653.766 39486.059 42.572681 4294967295
59654.605 39487.074 42.604698 4294967295
59654.477 39486.922 42.596626 4294967295
59654.348 39486.762 42.59251 4294967295
59654.188 39486.566 42.586185 4294967295
59653.988 39486.328 42.57653 4294967295
59653.781 39486.078 42.573822 4294967295
59654.605 39487.078 42.604736 4294967295
59654.484 39486.93 42.596695 4294967295
59654.355 39486.77 42.593582 4294967295
59654.195 39486.574 42.586243 4294967295
59653.996 39486.34 42.576614 4294967295
59653.781 39486.078 42.571838 4294967295
59654.613 39487.086 42.604794 4294967295
59654.488 39486.934 42.596725 4294967295
59654.359 39486.773 42.592609 4294967295
59654.207 39486.59 42.588333 4294967295
59654.008 39486.352 42.577679 4294967295
59653.793 39486.094 42.571915 4294967295
59654.617 39487.09 42.604824 4294967295
59654.492 39486.938 42.596756 4294967295
59654.367 39486.781 42.592655 4294967295
59654.215 39486.598 42.588379 4294967295
59654.047 39486.391 42.584934 4294967295
59653.805 39486.105 42.572968 4294967295
59654.629 39487.102 42.605873 4294967295
59654.504 39486.949 42.597805 4294967295
59654.375 39486.793 42.593708 4294967295
59654.223 39486.605 42.588402 4294967295
59653.82 39486.113 42.572994 4294967295
59654.629 39487.102 42.605877 4294967295
59654.508 39486.953 42.597836 4294967295
59654.379 39486.793 42.592697 4294967295
59654.234 39486.613 42.588413 4294967295
59654.055 39486.398 42.58292 4294967295
59653.836 39486.125 42.574036 4294967295
59654.637 39487.109 42.606899 4294967295
59654.52 39486.961 42.59885 4294967295
59654.387 39486.797 42.592693 4294967295
59654.242 39486.617 42.588398 4294967295
59654.055 39486.391 42.579823 4294967295
59653.844 39486.133 42.574024 4294967295
59654.645 39487.113 42.60688 4294967295
59654.523 39486.965 42.598831 4294967295
59654.398 39486.805 42.593693 4294967295
59654.254 39486.625 42.589413 4294967295
59654.066 39486.395 42.579796 4294967295
59653.859 39486.141 42.575031 4294967295
59654.652 39487.117 42.606876 4294967295
59654.531 39486.969 42.598812 4294967295
59654.402 39486.805 42.593651 4294967295
59654.262 39486.629 42.589375 4294967295
59654.074 39486.398 42.579769 4294967295
59653.867 39486.141 42.572952 4294967295
59654.66 39487.121 42.60685 4294967295
59654.539 39486.969 42.598759 4294967295
59654.414 39486.812 42.594654 4294967295
59654.266 39486.625 42.588303 4294967295
59654.09 39486.406 42.580734 4294967295
59653.883 39486.148 42.573895 4294967295
59654.664 39487.121 42.606804 4294967295
59654.547 39486.973 42.599743 4294967295
59654.422 39486.812 42.594585 4294967295
59654.277 39486.629 42.589256 4294967295
59654.105 39486.41 42.581688 4294967295
59653.898 39486.152 42.573837 4294967295
59654.672 39487.121 42.607761 4294967295
59654.559 39486.973 42.599678 4294967295
59654.434 39486.816 42.594521 4294967295
59654.289 39486.633 42.590206 4294967295
59654.113 39486.41 42.5816 4294967295
59653.906 39486.148 42.573719 4294967295
59654.68 39487.121 42.607697 4294967295
59654.562 39486.973 42.599598 4294967295
59654.449 39486.82 42.596489 4294967295
59654.301 39486.633 42.590118 4294967295
59654.121 39486.41 42.581486 4294967295
59653.918 39486.148 42.573597 4294967295
59654.684 39487.121 42.607616 4294967295
59654.574 39486.973 42.600536 4294967295
59654.453 39486.82 42.596386 4294967295
59654.312 39486.637 42.591045 4294967295
59654.137 39486.414 42.582417 4294967295
59653.93 39486.148 42.573486 4294967295
59654.695 39487.121 42.60754 4294967295
59654.578 39486.973 42.59943 4294967295
59654.461 39486.816 42.59528 4294967295
59654.32 39486.633 42.588902 4294967295
59654.148 39486.41 42.582279 4294967295
59653.945 39486.148 42.573353 4294967295
59654.699 39487.117 42.607433 4294967295
59654.586 39486.965 42.598301 4294967295
59654.469 39486.812 42.59515 4294967295
59654.328 39486.629 42.589775 4294967295
59654.16 39486.41 42.582153 4294967295
59653.961 39486.148 42.574207 4294967295
59654.711 39487.117 42.608356 4294967295
59654.598 39486.973 42.601254 4294967295
59654.484 39486.816 42.59708 4294967295
59654.34 39486.625 42.589638 4294967295
59654.172 39486.402 42.581978 4294967295
59653.973 39486.145 42.574047 4294967295
59654.719 39487.113 42.608242 4294967295
59654.609 39486.969 42.601124 4294967295
59654.492 39486.809 42.595913 4294967295
59654.352 39486.625 42.590527 4294967295
59654.18 39486.398 42.581802 4294967295
59653.988 39486.141 42.574879 4294967295
59654.723 39487.109 42.608124 4294967295
59654.617 39486.965 42.602001 4294967295
59654.496 39486.801 42.59473 4294967295
59654.363 39486.621 42.590351 4294967295
59654.191 39486.395 42.581631 4294967295
59654 39486.137 42.574669 4294967295
59654.734 39487.109 42.607998 4294967295
59654.629 39486.965 42.602886 4294967295
59654.508 39486.797 42.595596 4294967295
59654.367 39486.609 42.589134 4294967295
59654.203 39486.387 42.581444 4294967295
59654.016 39486.133 42.57547 4294967295
59654.742 39487.105 42.608868 4294967295
59654.633 39486.953 42.600677 4294967295
59654.516 39486.793 42.595432 4294967295
59654.383 39486.609 42.591003 4294967295
59654.215 39486.379 42.581219 4294967295
59654.023 39486.121 42.574207 4294967295
59654.746 39487.094 42.6077 4294967295
59654.641 39486.949 42.600529 4294967295
59654.527 39486.789 42.596268 4294967295
59654.395 39486.602 42.589787 4294967295
59654.227 39486.371 42.58099 4294967295
59654.035 39486.109 42.573944 4294967295
59654.758 39487.09 42.607536 4294967295
59654.652 39486.941 42.600365 4294967295
59654.535 39486.777 42.595055 4294967295
59654.402 39486.594 42.590599 4294967295
59654.238 39486.363 42.581772 4294967295
59654.047 39486.098 42.573685 4294967295
59654.762 39487.082 42.607368 4294967295
59654.668 39486.941 42.60323 4294967295
59654.551 39486.777 42.596909 4294967295
59654.422 39486.594 42.59243 4294967295
59654.254 39486.359 42.582561 4294967295
59654.066 39486.09 42.57444 4294967295
59654.777 39487.082 42.609234 4294967295
59654.672 39486.93 42.602013 4294967295
59654.559 39486.77 42.596706 4294967295
59654.426 39486.578 42.590137 4294967295
59654.266 39486.348 42.582314 4294967295
59654.07 39486.07 42.573097 4294967295
59654.785 39487.074 42.609043 4294967295
59654.68 39486.918 42.60078 4294967295
59654.57 39486.762 42.597481 4294967295
59654.434 39486.566 42.589886 4294967295
59654.277 39486.336 42.58205 4294967295
59654.086 39486.062 42.57383 4294967295
59654.793 39487.062 42.607838 4294967295
59654.691 39486.914 42.601608 4294967295
59654.582 39486.754 42.597282 4294967295
59654.449 39486.559 42.590664 4294967295
59654.297 39486.332 42.58382 4294967295
59654.094 39486.043 42.572453 4294967295
59654.797 39487.055 42.60762 4294967295
59654.699 39486.906 42.602409 4294967295
59654.59 39486.738 42.596016 4294967295
59654.457 39486.543 42.589397 4294967295
59654.305 39486.316 42.583508 4294967295
59654.109 39486.027 42.57214 4294967295
59654.809 39487.043 42.607407 4294967295
59654.707 39486.895 42.60014 4294967295
59654.598 39486.727 42.595764 4294967295
59654.469 39486.535 42.590126 4294967295
59654.316 39486.305 42.58321 4294967295
59654.117 39486.008 42.570766 4294967295
59654.816 39487.035 42.607193 4294967295
59654.719 39486.883 42.600925 4294967295
59654.609 39486.719 42.596512 4294967295
59654.48 39486.523 42.589863 4294967295
59654.328 39486.289 42.582882 4294967295
59654.129 39485.988 42.570389 4294967295
59654.824 39487.023 42.606976 4294967295
59654.723 39486.867 42.598621 4294967295
59654.621 39486.707 42.597263 4294967295
59654.492 39486.508 42.58955 4294967295
59654.336 39486.266 42.581516 4294967295
59654.145 39485.977 42.57106 4294967295
59654.836 39487.016 42.60675 4294967295
59654.738 39486.863 42.600426 4294967295
59654.629 39486.691 42.595974 4294967295
59654.504 39486.496 42.590263 4294967295
59654.348 39486.254 42.581181 4294967295
59654.16 39485.965 42.571712 4294967295
59654.844 39487.008 42.607536 4294967295
59654.746 39486.848 42.599133 4294967295
59654.637 39486.676 42.594643 4294967295
59654.516 39486.48 42.589966 4294967295
59654.367 39486.246 42.582916 4294967295
59654.172 39485.941 42.571289 4294967295
59654.852 39486.992 42.606258 4294967295
59654.754 39486.832 42.598869 4294967295
59654.652 39486.672 42.596424 4294967295
59654.523 39486.461 42.588596 4294967295
59654.375 39486.223 42.581524 4294967295
59654.184 39485.922 42.570904 4294967295
59654.863 39486.984 42.607048 4294967295
59654.762 39486.82 42.598591 4294967295
59654.664 39486.656 42.596123 4294967295
59654.535 39486.445 42.588276 4294967295
59654.379 39486.195 42.58007 4294967295
59654.199 39485.902 42.571495 4294967295
59654.871 39486.973 42.606781 4294967295
59654.777 39486.812 42.599342 4294967295
59654.672 39486.641 42.595825 4294967295
59654.543 39486.43 42.587925 4294967295
59654.395 39486.18 42.579697 4294967295
59654.219 39485.891 42.57214 4294967295
59654.887 39486.965 42.607544 4294967295
59654.785 39486.797 42.599056 4294967295
59654.684 39486.629 42.595512 4294967295
59654.559 39486.41 42.587574 4294967295
59654.406 39486.16 42.579338 4294967295
59654.234 39485.871 42.572735 4294967295
59654.891 39486.945 42.605225 4294967295
59654.797 39486.785 42.598766 4294967295
59654.695 39486.609 42.595184 4294967295
59654.57 39486.395 42.588238 4294967295
59654.418 39486.141 42.578911 4294967295
59654.25 39485.852 42.573303 4294967295
59654.898 39486.93 42.605949 4294967295
59654.809 39486.773 42.599495 4294967295
59654.711 39486.602 42.596905 4294967295
59654.578 39486.375 42.586849 4294967295
59654.434 39486.121 42.57954 4294967295
59654.262 39485.828 42.572853 4294967295
59654.91 39486.922 42.605701 4294967295
59654.82 39486.762 42.600208 4294967295
59654.719 39486.582 42.595551 4294967295
59654.594 39486.359 42.587505 4294967295
59654.445 39486.105 42.579159 4294967295
59654.277 39485.809 42.572407 4294967295
59654.922 39486.906 42.605412 4294967295
59654.828 39486.742 42.598854 4294967295
59654.734 39486.57 42.596241 4294967295
59654.605 39486.344 42.587132 4294967295
59654.461 39486.086 42.57975 4294967295
59654.289 39485.781 42.571911 4294967295
59654.934 39486.895 42.606125 4294967295
59654.84 39486.73 42.599567 4294967295
59654.746 39486.551 42.595867 4294967295
59654.613 39486.316 42.585678 4294967295
59654.477 39486.066 42.579327 4294967295
59654.309 39485.766 42.573509 4294967295
59654.941 39486.879 42.604809 4294967295
59654.852 39486.715 42.599258 4294967295
59654.758 39486.535 42.595543 4294967295
59654.629 39486.301 42.586334 4294967295
59654.492 39486.047 42.579922 4294967295
59654.316 39485.723 42.569866 4294967295
59654.953 39486.867 42.605537 4294967295
59654.863 39486.699 42.598934 4294967295
59654.77 39486.523 42.596222 4294967295
59654.645 39486.285 42.585938 4294967295
59654.504 39486.023 42.579449 4294967295
59654.328 39485.699 42.569355 4294967295
59654.965 39486.852 42.605213 4294967295
59654.879 39486.688 42.599625 4294967295
59654.785 39486.508 42.596863 4294967295
59654.656 39486.266 42.586552 4294967295
59654.527 39486.016 42.582161 4294967295
59654.344 39485.672 42.569862 4294967295
59654.977 39486.836 42.603886 4294967295
59654.887 39486.668 42.598248 4294967295
59654.793 39486.48 42.594421 4294967295
59654.668 39486.242 42.585102 4294967295
59654.531 39485.977 42.578529 4294967295
59654.359 39485.645 42.568314 4294967295
59654.988 39486.824 42.604588 4294967295
59654.902 39486.656 42.598949 4294967295
59654.809 39486.473 42.596142 4294967295
59654.684 39486.223 42.58572 4294967295
59654.547 39485.957 42.579098 4294967295
59654.379 39485.621 42.569836 4294967295
59655 39486.809 42.60429 4294967295
59654.914 39486.637 42.598564 4294967295
59654.82 39486.449 42.594719 4294967295
59654.703 39486.211 42.586365 4294967295
59654.559 39485.93 42.577587 4294967295
59654.395 39485.594 42.56929 4294967295
59655.008 39486.789 42.602924 4294967295
59654.926 39486.621 42.59824 4294967295
59654.836 39486.434 42.595371 4294967295
59654.711 39486.184 42.584877 4294967295
59654.578 39485.91 42.578171 4294967295
59654.41 39485.57 42.568775 4294967295
59655.023 39486.781 42.604656 4294967295
59654.938 39486.602 42.59684 4294967295
59654.844 39486.41 42.593922 4294967295
59654.727 39486.164 42.584457 4294967295
59654.598 39485.895 42.579742 4294967295
59654.426 39485.539 42.568203 4294967295
59655.035 39486.766 42.604321 4294967295
59654.949 39486.582 42.596466 4294967295
59654.859 39486.391 42.593525 4294967295
59654.742 39486.145 42.585026 4294967295
59654.613 39485.867 42.57822 4294967295
59654.445 39485.516 42.567661 4294967295
59655.047 39486.746 42.602955 4294967295
59654.961 39486.566 42.596107 4294967295
59654.871 39486.371 42.592113 4294967295
59654.762 39486.125 42.585621 4294967295
59654.629 39485.848 42.578766 4294967295
59654.465 39485.492 42.569172 4294967295
59655.062 39486.734 42.603661 4294967295
59654.977 39486.547 42.595722 4294967295
59654.887 39486.348 42.591667 4294967295
59654.777 39486.109 42.585201 4294967295
59654.645 39485.82 42.578262 4294967295
59654.48 39485.457 42.567539 4294967295
59655.074 39486.719 42.60231 4294967295
59654.992 39486.535 42.596401 4294967295
59654.898 39486.332 42.591297 4294967295
59654.793 39486.09 42.58477 4294967295
59654.664 39485.801 42.578808 4294967295
59654.5 39485.438 42.568039 4294967295
59655.086 39486.707 42.603016 4294967295
59655.004 39486.516 42.595016 4294967295
59654.914 39486.312 42.590889 4294967295
59654.805 39486.062 42.58326 4294967295
59654.684 39485.781 42.578327 4294967295
59654.52 39485.406 42.566422 4294967295
59655.102 39486.695 42.603706 4294967295
59655.02 39486.504 42.595673 4294967295
59654.934 39486.297 42.591507 4294967295
59654.824 39486.047 42.583858 4294967295
59654.703 39485.758 42.578835 4294967295
59654.539 39485.387 42.567936 4294967295
59655.113 39486.676 42.602306 4294967295
59655.035 39486.488 42.595314 4294967295
59654.945 39486.277 42.590073 4294967295
59654.84 39486.02 42.582375 4294967295
59654.719 39485.734 42.578331 4294967295
59654.562 39485.359 42.567398 4294967295
59655.125 39486.656 42.600933 4294967295
59655.047 39486.465 42.593906 4294967295
59654.961 39486.258 42.589668 4294967295
59654.859 39486.008 42.583996 4294967295
59654.738 39485.715 42.57888 4294967295
59654.582 39485.336 42.567822 4294967295
59655.141 39486.645 42.601627 4294967295
59655.062 39486.453 42.594563 4294967295
59654.98 39486.242 42.590286 4294967295
59654.879 39485.992 42.584606 4294967295
59654.758 39485.691 42.578365 4294967295
59654.605 39485.316 42.568336 4294967295
59655.156 39486.633 42.601307 4294967295
59655.078 39486.434 42.593155 4294967295
59654.996 39486.223 42.588844 4294967295
59654.895 39485.965 42.583088 4294967295
59654.777 39485.668 42.576836 4294967295
59654.629 39485.293 42.568775 4294967295
59655.172 39486.621 42.603016 4294967295
59655.094 39486.422 42.593811 4294967295
59655.012 39486.207 42.589462 4294967295
59654.918 39485.957 42.584751 4294967295
59654.648 39485.262 42.568184 4294967295
59655.188 39486.605 42.601654 4294967295
59655.113 39486.414 42.59552 4294967295
59655.031 39486.195 42.590111 4294967295
59654.93 39485.926 42.582153 4294967295
59654.816 39485.617 42.575794 4294967295
59654.676 39485.246 42.568703 4294967295
59655.203 39486.594 42.601311 4294967295
59655.129 39486.395 42.594112 4294967295
59655.051 39486.176 42.589691 4294967295
59654.953 39485.914 42.583805 4294967295
59654.84 39485.605 42.577408 4294967295
59654.699 39485.219 42.568104 4294967295
59655.215 39486.574 42.599937 4294967295
59655.145 39486.379 42.593742 4294967295
59655.066 39486.16 42.589302 4294967295
59654.973 39485.891 42.582298 4294967295
59654.859 39485.582 42.575844 4294967295
59654.727 39485.203 42.56966 4294967295
59655.234 39486.566 42.600632 4294967295
59655.164 39486.363 42.593388 4294967295
59655.086 39486.145 42.588898 4294967295
59654.992 39485.871 42.58186 4294967295
59654.883 39485.566 42.576408 4294967295
59654.746 39485.176 42.568058 4294967295
59655.25 39486.551 42.600304 4294967295
59655.184 39486.352 42.594048 4294967295
59655.105 39486.129 42.588493 4294967295
59655.016 39485.859 42.582485 4294967295
59654.906 39485.543 42.575882 4294967295
59654.773 39485.164 42.569603 4294967295
59655.27 39486.547 42.601036 4294967295
59655.199 39486.344 42.59473 4294967295
59655.125 39486.113 42.589127 4294967295
59655.035 39485.852 42.584137 4294967295
59654.93 39485.531 42.576473 4294967295
59654.801 39485.141 42.569031 4294967295
59655.281 39486.523 42.598602 4294967295
59655.219 39486.328 42.594376 4294967295
59655.145 39486.102 42.588753 4294967295
59655.059 39485.832 42.582672 4294967295
59654.953 39485.512 42.577026 4294967295
59654.828 39485.129 42.570614 4294967295
59655.305 39486.523 42.602425 4294967295
59655.238 39486.316 42.594036 4294967295
59655.16 39486.078 42.586258 4294967295
59655.078 39485.816 42.583275 4294967295
59654.977 39485.5 42.577591 4294967295
59654.852 39485.094 42.56794 4294967295
59655.316 39486.508 42.600056 4294967295
59655.258 39486.309 42.594707 4294967295
59655.18 39486.062 42.58688 4294967295
59655.102 39485.805 42.582859 4294967295
59655 39485.477 42.57608 4294967295
59654.879 39485.078 42.568459 4294967295
59655.336 39486.5 42.60075 4294967295
59655.273 39486.289 42.593315 4294967295
59655.203 39486.055 42.587543 4294967295
59655.125 39485.789 42.583473 4294967295
59655.027 39485.465 42.57666 4294967295
59654.906 39485.07 42.570068 4294967295
59655.355 39486.492 42.601486 4294967295
59655.293 39486.277 42.592937 4294967295
59655.223 39486.047 42.58823 4294967295
59655.145 39485.773 42.583038 4294967295
59655.051 39485.449 42.576199 4294967295
59654.938 39485.055 42.570576 4294967295
59655.371 39486.477 42.600128 4294967295
59655.312 39486.27 42.593674 4294967295
59655.246 39486.039 42.588947 4294967295
59655.168 39485.766 42.583691 4294967295
59655.078 39485.438 42.576805 4294967295
59654.965 39485.039 42.570084 4294967295
59655.391 39486.477 42.600903 4294967295
59655.332 39486.266 42.594395 4294967295
59655.266 39486.023 42.587505 4294967295
59655.191 39485.746 42.582203 4294967295
59655.102 39485.422 42.577374 4294967295
59654.996 39485.031 42.571693 4294967295
59655.41 39486.465 42.601612 4294967295
59655.352 39486.258 42.595093 4294967295
59655.293 39486.023 42.590298 4294967295
59655.219 39485.742 42.582932 4294967295
59655.129 39485.41 42.576965 4294967295
59655.023 39485.02 42.571266 4294967295
59655.43 39486.457 42.601322 4294967295
59655.375 39486.25 42.594818 4294967295
59655.316 39486.016 42.591 4294967295
59655.242 39485.73 42.583546 4294967295
59655.156 39485.402 42.577572 4294967295
59655.051 39485 42.570736 4294967295
59655.449 39486.453 42.602055 4294967295
59655.395 39486.238 42.594452 4294967295
59655.336 39486.004 42.589634 4294967295
59655.266 39485.73 42.584301 4294967295
59655.184 39485.395 42.578213 4294967295
59655.082 39484.984 42.570255 4294967295
59655.469 39486.445 42.601791 4294967295
59655.414 39486.23 42.594154 4294967295
59655.359 39485.996 42.590324 4294967295
59655.289 39485.711 42.58284 4294967295
59655.211 39485.383 42.577831 4294967295
59655.109 39484.973 42.569828 4294967295
59655.488 39486.441 42.602535 4294967295
59655.434 39486.223 42.593864 4294967295
59655.379 39485.988 42.588985 4294967295
59655.316 39485.711 42.584557 4294967295
59655.238 39485.379 42.578491 4294967295
59655.141 39484.965 42.570412 4294967295
59655.508 39486.438 42.603336 4294967295
59655.457 39486.215 42.593575 4294967295
59655.402 39485.984 42.590725 4294967295
59655.34 39485.703 42.584236 4294967295
59655.266 39485.371 42.578121 4294967295
59655.172 39484.953 42.569973 4294967295
59655.527 39486.434 42.603058 4294967295
59655.477 39486.215 42.594337 4294967295
59655.43 39485.984 42.591503 4294967295
59655.367 39485.699 42.584953 4294967295
59655.293 39485.367 42.578819 4294967295
59655.203 39484.957 42.571724 4294967295
59655.547 39486.426 42.602791 4294967295
59655.5 39486.215 42.596149 4294967295
59655.449 39485.977 42.591179 4294967295
59655.391 39485.695 42.585686 4294967295
59655.324 39485.371 42.580612 4294967295
59655.234 39484.953 42.572395 4294967295
59655.566 39486.426 42.603603 4294967295
59655.523 39486.215 42.596951 4294967295
59655.473 39485.969 42.590881 4294967295
59655.418 39485.699 42.586452 4294967295
59655.352 39485.363 42.580257 4294967295
59655.266 39484.949 42.572033 4294967295
59655.586 39486.422 42.603352 4294967295
59655.543 39486.207 42.595638 4294967295
59655.5 39485.977 42.592724 4294967295
59655.441 39485.691 42.586128 4294967295
59655.379 39485.363 42.580978 4294967295
59655.297 39484.945 42.572708 4294967295
59655.605 39486.418 42.603134 4294967295
59655.562 39486.203 42.596413 4294967295
59655.52 39485.969 42.591423 4294967295
59655.469 39485.688 42.586861 4294967295
59655.406 39485.363 42.581726 4294967295
59655.332 39484.941 42.57238 4294967295
59655.625 39486.41 42.602871 4294967295
59655.586 39486.203 42.597214 4294967295
59655.543 39485.965 42.592163 4294967295
59655.496 39485.684 42.586578 4294967295
59655.438 39485.363 42.582458 4294967295
59655.363 39484.945 42.57312 4294967295
59655.645 39486.418 42.603756 4294967295
59655.609 39486.207 42.598042 4294967295
59655.57 39485.969 42.592979 4294967295
59655.52 39485.684 42.586334 4294967295
59655.465 39485.359 42.582165 4294967295
59655.395 39484.938 42.572727 4294967295
59655.668 39486.418 42.604568 4294967295
59655.633 39486.207 42.598866 4294967295
59655.594 39485.969 42.593792 4294967295
59655.547 39485.691 42.5882 4294967295
59655.496 39485.371 42.584064 4294967295
59655.555 39485.688 42.686081 4294967295
59655.688 39486.422 42.606457 4294967295
59655.664 39486.277 42.61459 4294967295
59655.66 39486.25 42.649193 4294967295
59655.664 39486.246 42.689129 4294967295
59655.664 39486.219 42.725746 4294967295
59655.668 39486.23 42.767868 4294967295
59655.707 39486.426 42.606304 4294967295
59655.684 39486.266 42.611225 4294967295
59655.68 39486.223 42.643665 4294967295
59655.641 39485.961 42.63723 4294967295
59655.684 39486.207 42.723381 4294967295
59655.688 39486.23 42.76767 4294967295
59655.723 39486.418 42.606075 4294967295
59655.703 39486.266 42.611012 4294967295
59655.707 39486.27 42.653072 4294967295
59655.699 39486.203 42.681194 4294967295
59655.656 39485.891 42.670078 4294967295
59655.594 39485.453 42.650345 4294967295
59655.746 39486.426 42.606976 4294967295
59655.723 39486.258 42.60976 4294967295
59655.727 39486.262 42.651806 4294967295
